4483          
641821.491734 4241244.558176 9.048635 -873 155 157 112
641821.491788 4241244.558470 9.050869 -891 155 156 108
641821.490694 4241244.553944 9.052944 -832 155 156 108
641821.490673 4241244.553918 9.055086 -811 155 156 108
641821.491111 4241244.555820 9.057255 -812 156 157 108
641821.490630 4241244.553866 9.059369 -837 156 157 108
641821.491375 4241244.557054 9.061557 -839 156 157 108
641821.489282 4241244.548341 9.064189 -897 156 157 108
641821.490257 4241244.552495 9.066303 -922 156 157 108
641821.489316 4241244.548610 9.068565 -943 156 157 108
641821.489370 4241244.548905 9.070800 -920 155 156 108
641821.491035 4241244.555951 9.073042 -923 155 156 108
641821.490400 4241244.553352 9.075323 -887 150 152 109
641821.491986 4241244.560075 9.077737 -873 150 152 109
641821.491124 4241244.556519 9.079387 -901 150 152 109
641821.490183 4241244.552634 9.081650 -945 153 155 110
641821.489854 4241244.551319 9.084038 -1008 153 155 110
641821.490444 4241244.553862 9.086480 -1177 153 155 110
641821.490808 4241244.555449 9.088291 -1261 153 155 110
641821.491169 4241244.557029 9.090631 -1652 153 155 110
641821.493763 4241244.568172 9.100057 -1255 153 155 110
641821.491749 4241244.559788 9.102171 -1082 153 155 110
641821.491728 4241244.559763 9.104400 -947 153 155 110
641821.491323 4241244.558130 9.106607 -917 153 155 110
641821.491915 4241244.560677 9.108784 -913 153 155 110
641821.491664 4241244.559688 9.110912 -941 153 155 110
641821.492793 4241244.564486 9.113119 -963 153 155 110
641821.491929 4241244.560927 9.115124 -997 157 159 113
641821.491140 4241244.557682 9.117662 -972 158 159 113
641821.492263 4241244.561124 9.119763 -912 158 159 113
641821.492166 4241244.560778 9.121900 -917 158 159 113
641821.492909 4241244.563964 9.124525 -951 158 159 113
641821.492199 4241244.561047 9.126627 -993 158 159 113
641821.491795 4241244.559415 9.128747 -1006 158 159 113
641821.491773 4241244.559391 9.130976 -1061 157 158 113
641821.492978 4241244.564510 9.133186 -1239 157 158 113
641821.489433 4241244.549699 9.135130 -1277 148 149 109
641821.492400 4241244.562213 9.137438 -1269 148 149 109
641821.490385 4241244.553824 9.140085 -1143 148 149 109
641821.490364 4241244.553801 9.142227 -945 148 149 109
641821.491339 4241244.557956 9.144423 -398 148 149 109
641821.491242 4241244.557612 9.146560 329 152 153 114
641821.491068 4241244.556946 9.148693 1066 153 154 114
641821.491048 4241244.556924 9.150746 1557 153 154 114
641821.492098 4241244.561397 9.153299 1966 153 154 114
641821.492307 4241244.562339 9.155364 2048 153 154 114
641821.492668 4241244.563920 9.157879 2048 153 154 114
641821.493108 4241244.565828 9.159868 2048 153 154 114
641821.492166 4241244.561943 9.162312 2048 153 154 114
641821.491151 4241244.557743 9.164223 1842 153 154 114
641821.491512 4241244.559325 9.166649 1306 153 154 114
641821.490496 4241244.555126 9.168561 1000 153 154 114
641821.489785 4241244.552207 9.170930 1757 153 154 114
641821.491601 4241244.559894 9.173610 2048 153 154 114
641821.491504 4241244.559552 9.175659 2048 153 154 114
641821.491715 4241244.560496 9.177636 2048 153 152 114
641821.492759 4241244.563612 9.180259 2048 153 152 115
641821.492208 4241244.562698 9.182299 2048 153 152 115
641821.491953 4241244.560354 9.184413 2048 153 152 115
641821.491702 4241244.559367 9.186542 2048 153 152 115
641821.491679 4241244.559339 9.189211 2048 151 150 114
641821.491659 4241244.559318 9.191353 2048 151 150 114
641821.492328 4241244.562189 9.193530 2048 151 150 114
641821.492384 4241244.562489 9.195675 2048 134 137 103
641821.492671 4241244.563753 9.197832 2048 134 137 103
641821.492497 4241244.563089 9.199965 2048 134 137 103
641821.492244 4241244.562097 9.202623 2048 134 137 103
641821.493067 4241244.565612 9.204719 2048 134 137 103
641821.492741 4241244.564306 9.206756 2048 134 137 103
641821.492030 4241244.561388 9.209215 2048 126 129 98
641821.492469 4241244.563296 9.211291 2048 125 128 97
641821.492373 4241244.562956 9.213252 2048 125 128 97
641821.493348 4241244.567110 9.215796 2048 125 128 97
641821.492256 4241244.562590 9.217707 2048 125 128 97
641821.492081 4241244.561923 9.220192 2048 125 128 97
641821.491218 4241244.558367 9.222115 2048 125 128 97
641821.488285 4241244.546126 9.224551 1524 125 128 97
641821.488342 4241244.546429 9.226520 363 125 128 97
641821.488396 4241244.546724 9.229194 -25 125 128 97
641821.488377 4241244.546704 9.231248 -5 125 128 97
641821.488433 4241244.547005 9.233393 -43 125 128 97
641821.489026 4241244.549557 9.235565 -57 125 128 97
641821.488163 4241244.546000 9.237665 -55 125 128 97
641821.488603 4241244.547909 9.239830 -52 117 121 93
641821.488121 4241244.545954 9.242477 382 117 121 93
641821.488407 4241244.547219 9.244722 1342 117 121 93
641821.489613 4241244.552343 9.246835 2048 117 121 93
641821.489746 4241244.552965 9.249072 2048 116 121 92
641821.488347 4241244.547159 9.251147 1426 116 121 92
641821.488251 4241244.546818 9.253197 336 116 121 92
641821.487534 4241244.542542 9.255820 -124 111 118 93
641821.488056 4241244.546131 9.257913 -92 111 118 93
641821.488950 4241244.548612 9.259997 -76 111 118 93
641821.488392 4241244.546338 9.262553 -57 111 118 93
641821.488220 4241244.545676 9.264599 -39 111 118 93
641821.488890 4241244.548551 9.266686 5 111 118 93
641821.488025 4241244.544991 9.269228 732 111 118 93
641821.489385 4241244.550759 9.271346 2048 112 120 98
641821.490668 4241244.556205 9.273549 2048 112 120 98
641821.492487 4241244.563901 9.275776 2048 112 120 98
641821.492082 4241244.562269 9.278428 2048 112 120 98
641821.491142 4241244.558393 9.280526 2048 112 120 98
641821.490280 4241244.554837 9.282717 2048 112 120 98
641821.490872 4241244.557389 9.284975 2048 112 120 98
641821.491465 4241244.559941 9.287232 2048 112 120 98
641821.491905 4241244.561850 9.289482 2048 112 120 98
641821.491731 4241244.561187 9.291793 2048 112 120 98
641821.491177 4241244.558922 9.293469 2048 112 120 98
641821.492000 4241244.562438 9.295825 2048 112 120 98
641821.492286 4241244.563704 9.298068 2048 112 120 98
641821.491653 4241244.561113 9.300357 2048 112 120 98
641821.491863 4241244.562058 9.302597 2048 111 120 98
641821.491383 4241244.560109 9.304894 2048 123 133 117
641821.491593 4241244.561055 9.307045 2048 123 133 117
641821.491880 4241244.562322 9.309288 2048 123 135 118
641821.491707 4241244.561661 9.311423 2048 123 135 118
641821.491303 4241244.560032 9.313987 2048 123 135 118
641821.491972 4241244.562906 9.316247 2048 131 141 126
641821.491111 4241244.559353 9.318263 2048 131 141 126
641821.490708 4241244.557728 9.320387 2048 131 141 126
641821.490076 4241244.555138 9.322502 2048 131 141 126
641821.488141 4241244.547084 9.324560 2016 131 141 126
641821.486050 4241244.538380 9.327317 26 131 141 126
641821.485034 4241244.534183 9.329415 -1040 131 141 126
641816.864797 4241225.159461 9.132813 -1411 131 141 126
641816.863089 4241225.152372 9.134954 -1350 131 141 126
641816.862297 4241225.149133 9.137823 -1365 136 149 136
641816.862347 4241225.149430 9.140843 -1424 136 149 136
641816.553568 4241223.856148 9.139368 -1577 136 149 136
641816.847507 4241225.087592 9.154737 -1448 136 149 136
641816.842423 4241225.066350 9.157545 -1277 136 149 136
641816.843011 4241225.068899 9.160475 -1248 136 149 136
641816.842449 4241225.066625 9.163473 -1298 136 149 136
641816.844109 4241225.073675 9.166447 -1284 136 149 136
641816.839640 4241225.055008 9.169054 -1406 136 149 136
641816.843139 4241225.069774 9.172104 -1436 138 151 138
641817.045340 4241225.918372 9.192363 -1666 133 146 137
641817.044856 4241225.916421 9.195219 -1427 133 146 137
641817.043687 4241225.909879 9.197921 -1344 133 146 137
641817.042665 4241225.905677 9.200870 -1442 133 146 137
641817.040955 4241225.898583 9.203679 -1481 126 138 130
641817.038633 4241225.888922 9.205895 -1315 126 138 130
641817.037612 4241225.884722 9.208732 -1301 126 138 130
641817.035900 4241225.877626 9.211770 -1291 126 138 130
641817.037561 4241225.884677 9.214826 -1287 126 138 130
641817.032861 4241225.865044 9.217747 -1303 126 138 130
641817.035674 4241225.876922 9.220167 -1321 126 138 130
641816.580363 4241223.966994 9.208643 -1447 112 122 114
641816.580263 4241223.966655 9.211118 -1333 112 122 114
641816.580084 4241223.965990 9.214172 -1372 112 122 114
641816.478983 4241223.541942 9.213362 -1135 112 122 114
641816.477501 4241223.535813 9.216381 -1017 112 122 114
641816.468510 4241223.498179 9.218999 -1039 112 122 114
641816.660291 4241224.302811 9.229331 -1464 112 122 114
641816.660343 4241224.303113 9.232149 -1502 112 122 114
641816.661237 4241224.306950 9.235231 -1440 112 122 114
641817.023934 4241225.828758 9.257370 -1296 113 123 115
641817.022613 4241225.821573 9.260187 -1205 113 123 115
641817.023355 4241225.824768 9.263094 -1217 112 121 114
641817.022640 4241225.821856 9.265947 -1151 96 106 94
641817.022999 4241225.823443 9.268954 -1318 96 106 94
641817.023051 4241225.823744 9.271949 -1337 96 106 94
641817.022415 4241225.821158 9.274237 -1392 96 106 94
641817.022160 4241225.820173 9.277335 -1450 99 106 93
641816.489052 4241223.585640 9.264371 -1361 99 106 93
641816.490179 4241223.590447 9.266901 -1259 99 106 93
641816.490153 4241223.590427 9.269974 -1292 99 106 93
641816.486296 4241223.574332 9.273028 -1377 99 106 93
641816.953535 4241225.532944 9.297975 -1427 99 106 93
641816.947226 4241225.506564 9.300759 -1248 99 106 93
641816.947125 4241225.506224 9.303761 -1194 95 101 85
641816.947024 4241225.505884 9.306648 -1165 95 101 85
641816.947307 4241225.507153 9.309434 -1220 95 101 85
641816.951497 4241225.524816 9.312468 -1266 95 101 85
641816.952546 4241225.529299 9.315393 -1246 95 101 85
641816.952982 4241225.531211 9.318298 -1278 95 101 85
641816.954184 4241225.536337 9.321228 -1429 95 101 85
641816.954083 4241225.535997 9.324228 -1288 95 101 85
641816.953368 4241225.533085 9.327208 -1244 95 101 85
641816.954113 4241225.536287 9.329552 -1258 95 101 85
641816.951943 4241225.527268 9.332483 -1232 95 101 85
641816.951381 4241225.524999 9.335583 -1239 95 101 85
641816.951970 4241225.527552 9.338720 -1274 95 101 85
641816.950492 4241225.521431 9.340991 -1216 96 101 86
641816.950697 4241225.522377 9.344116 -1293 96 101 86
641816.954427 4241225.538110 9.347469 -1261 95 100 79
641816.953026 4241225.532311 9.349743 -1150 95 100 79
641816.955223 4241225.541615 9.353045 -1120 98 102 78
641816.955888 4241225.544490 9.356184 -1104 98 102 78
641816.956096 4241225.545442 9.358623 -1187 98 102 78
641816.954309 4241225.538030 9.361684 -1391 98 102 78
641816.712056 4241224.522364 9.374702 -1353 98 102 79
641816.616164 4241224.120178 9.374581 -1280 98 102 79
641816.615986 4241224.119519 9.377630 -1211 98 101 78
641816.624469 4241224.155188 9.380825 -1407 98 101 78
641816.631265 4241224.183784 9.383967 -1294 98 101 78
641816.632010 4241224.186987 9.386345 -1295 98 101 78
641816.632062 4241224.187293 9.389283 -1283 98 101 78
641816.628359 4241224.171846 9.392341 -1227 98 101 78
641816.623507 4241224.151577 9.395251 -1300 98 101 78
641816.620418 4241224.138702 9.398213 -1340 98 101 78
641816.616638 4241224.122933 9.401273 -1270 98 101 78
641821.486959 4241244.549802 8.971285 -1311 153 156 111
641821.486790 4241244.549128 8.973412 -1299 153 156 111
641821.489000 4241244.558431 8.975789 -1325 153 156 111
641821.488371 4241244.555825 8.977977 -1241 153 156 111
641821.488432 4241244.556115 8.980211 -1290 153 156 111
641821.487418 4241244.551896 8.982560 -1237 153 156 111
641821.486177 4241244.546718 8.984431 -1259 153 156 111
641821.488002 4241244.554409 8.987058 -1306 154 157 112
641821.486145 4241244.546653 8.989075 -1271 154 157 112
641821.486514 4241244.548232 8.991329 -1245 154 157 112
641821.487496 4241244.552387 8.993531 -1225 154 157 112
641821.489092 4241244.559116 8.995865 -1304 154 157 112
641821.486392 4241244.547820 8.997827 -1218 154 157 112
641821.487528 4241244.552619 9.000038 -1200 154 157 112
641821.487359 4241244.551943 9.002350 -1232 154 157 112
641821.487497 4241244.552556 9.004589 -1292 154 157 112
641821.487712 4241244.553491 9.006833 -1190 154 157 112
641821.488848 4241244.558290 9.009136 -1263 154 157 112
641821.487222 4241244.551499 9.011262 -1205 154 157 112
641821.487974 4241244.554688 9.013540 -1208 154 157 112
641821.487882 4241244.554334 9.015857 -1265 154 156 111
641821.486791 4241244.549795 9.018203 -1237 158 161 114
641821.488159 4241244.555563 9.020242 -1208 154 157 112
641821.487222 4241244.551667 9.022598 -1203 154 157 112
641821.487131 4241244.551318 9.024638 -1222 155 157 112
641821.486952 4241244.552004 9.027153 -1121 155 157 112
641821.487628 4241244.554872 9.029333 -1194 155 157 112
641821.485694 4241244.546795 9.031442 -1193 155 157 112
641821.487828 4241244.555780 9.033714 -1178 155 157 112
641821.487660 4241244.555107 9.035933 -1154 155 157 112
641821.487108 4241244.552824 9.038129 -1231 155 157 112
641821.487860 4241244.556012 9.040498 -1201 155 157 112
641821.486771 4241244.551476 9.042661 -1182 155 157 112
641821.486141 4241244.548870 9.044945 -1189 155 157 112
641821.487508 4241244.554635 9.047259 -1156 155 157 112
641821.487876 4241244.556214 9.049604 -1144 155 156 108
641821.487094 4241244.552966 9.051786 -1157 155 156 108
641821.487540 4241244.554869 9.054044 -1165 155 156 108
641821.486681 4241244.551300 9.056129 -1093 156 157 108
641821.485362 4241244.545798 9.058279 -1066 156 157 108
641821.486048 4241244.547305 9.060439 -1085 156 157 108
641821.487338 4241244.552750 9.062655 -1104 156 157 108
641821.488475 4241244.557551 9.064862 -1156 156 157 108
641821.487770 4241244.554625 9.067049 -1127 156 157 108
641821.486451 4241244.549126 9.069107 -1108 156 157 108
641821.487511 4241244.553605 9.071308 -1140 156 157 108
641821.486729 4241244.550358 9.073492 -1084 156 157 108
641821.486483 4241244.549361 9.075892 -1089 155 156 108
641821.485471 4241244.545148 9.078062 -1098 155 156 108
641821.488065 4241244.556064 9.080539 -1120 153 155 110
641821.487973 4241244.555713 9.082856 -1119 153 155 110
641821.486961 4241244.551499 9.085119 -1111 153 155 110
641821.486948 4241244.551477 9.086885 -1217 153 155 110
641821.485936 4241244.547263 9.089148 -1393 153 155 110
641821.486156 4241244.548384 9.102635 -1575 153 155 110
641821.490179 4241244.565363 9.109557 -1633 153 155 110
641821.488707 4241244.559221 9.111610 -1503 153 155 110
641821.487540 4241244.554359 9.114235 -1509 157 159 113
641821.489263 4241244.561685 9.120838 -1520 158 159 113
641821.488175 4241244.557153 9.122914 -1450 158 159 113
641821.488083 4241244.556803 9.125231 -1487 158 159 113
641821.490649 4241244.567668 9.132157 -1501 158 159 113
641821.487721 4241244.555414 9.133760 -1508 158 159 113
641821.487011 4241244.551097 9.138441 -1293 157 158 113
641821.489759 4241244.562659 9.140916 -1258 148 149 109
641821.487595 4241244.553618 9.143118 -968 148 149 109
641821.488428 4241244.557139 9.144931 -568 152 153 114
641821.488643 4241244.558078 9.147266 179 153 154 114
641821.489780 4241244.562880 9.149650 1099 153 154 114
641821.488922 4241244.559313 9.151833 1728 153 154 114
641821.489598 4241244.562183 9.154192 2048 153 154 114
641821.491119 4241244.568596 9.156505 2048 153 154 114
641821.490491 4241244.565995 9.158700 2048 153 154 114
641821.490400 4241244.565647 9.160924 2048 153 154 114
641821.490693 4241244.566911 9.163077 2048 153 154 114
641821.489605 4241244.562378 9.165248 1922 153 154 114
641821.488364 4241244.557204 9.167318 1560 153 154 114
641821.489194 4241244.560719 9.169593 1242 153 154 114
641821.486725 4241244.550393 9.171690 1577 153 154 114
641821.488399 4241244.557449 9.174102 2048 153 154 114
641821.488614 4241244.558389 9.176436 2048 153 152 114
641821.489828 4241244.563514 9.178730 2048 153 152 115
641821.488893 4241244.559624 9.181095 2048 153 152 115
641821.489109 4241244.560564 9.183429 2048 153 152 115
641821.490402 4241244.566018 9.185264 2048 153 152 115
641821.489390 4241244.561806 9.187625 2048 153 152 115
641821.490142 4241244.564998 9.190079 2048 153 152 115
641821.489593 4241244.562725 9.191910 2048 153 152 115
641821.489579 4241244.562699 9.194231 2048 151 150 114
641821.489948 4241244.564282 9.196665 2048 151 150 114
641821.490778 4241244.567797 9.199123 2048 151 150 114
641821.490536 4241244.566812 9.200877 2048 134 137 103
641821.490446 4241244.566466 9.203102 2048 134 137 103
641821.490508 4241244.566763 9.205427 2048 134 137 103
641821.490571 4241244.567061 9.207659 2048 126 129 98
641821.490175 4241244.565429 9.209776 2048 125 128 97
641821.490007 4241244.564760 9.212090 2048 125 128 97
641821.490376 4241244.566342 9.214708 2048 125 128 97
641821.490209 4241244.565674 9.216929 2048 125 128 97
641821.489428 4241244.562432 9.219026 2048 125 128 97
641821.488494 4241244.558546 9.221209 2048 125 128 97
641821.487943 4241244.556270 9.223318 2048 125 128 97
641821.486856 4241244.551740 9.225494 2048 125 128 97
641821.485538 4241244.546243 9.227658 898 125 128 97
641821.485984 4241244.548151 9.230003 15 125 128 97
641821.485434 4241244.545874 9.232206 -123 125 128 97
641821.485192 4241244.544890 9.233961 -138 125 128 97
641821.485102 4241244.544544 9.236279 -170 125 128 97
641821.486402 4241244.548629 9.238743 -159 117 121 93
641821.485851 4241244.546352 9.241039 -106 117 121 93
641821.485760 4241244.546005 9.243450 -24 117 121 93
641821.485595 4241244.545343 9.245209 150 117 121 93
641821.485658 4241244.545641 9.247535 506 117 121 93
641821.485797 4241244.546261 9.249957 677 117 121 93
641821.485707 4241244.545915 9.252275 519 117 121 93
641821.485771 4241244.546215 9.254508 138 116 121 92
641821.486294 4241244.548445 9.256856 0 116 121 92
641821.485744 4241244.546169 9.259059 15 111 118 93
641821.485117 4241244.543573 9.261167 -30 111 118 93
641821.485564 4241244.545482 9.263418 -90 111 118 93
641821.485781 4241244.546426 9.265659 -87 111 118 93
641821.485769 4241244.546405 9.267796 -18 111 118 93
641821.486139 4241244.547992 9.270043 600 112 120 98
641821.486816 4241244.550867 9.272397 1876 112 120 98
641821.488031 4241244.555996 9.274684 2048 112 120 98
641821.488555 4241244.558227 9.277031 2048 112 120 98
641821.488774 4241244.559176 9.278808 2048 112 120 98
641821.490219 4241244.565270 9.281197 2048 112 120 98
641821.489975 4241244.564283 9.283415 2048 112 120 98
641821.490115 4241244.564903 9.285836 2048 112 120 98
641821.489257 4241244.561339 9.288211 2048 112 120 98
641821.489169 4241244.561000 9.289974 2048 112 120 98
641821.489999 4241244.564517 9.292519 2048 112 120 98
641821.489528 4241244.562568 9.294357 2048 112 120 98
641821.489284 4241244.561580 9.296760 2048 112 120 98
641821.489040 4241244.560591 9.299164 2048 112 120 98
641821.488873 4241244.559925 9.301571 2048 111 120 98
641821.489706 4241244.563450 9.303282 2048 123 133 117
641821.489462 4241244.562462 9.305686 2048 123 133 117
641821.489373 4241244.562118 9.308004 2048 123 133 117
641821.488822 4241244.559843 9.310301 2048 123 133 117
641821.489731 4241244.563687 9.312479 2048 123 133 117
641821.488874 4241244.560125 9.314670 2048 123 135 118
641821.487556 4241244.554632 9.316842 2048 123 135 118
641821.488311 4241244.557831 9.319104 2048 131 141 126
641821.488759 4241244.559742 9.321354 2048 131 141 126
641821.487518 4241244.554571 9.323529 2048 131 141 126
641821.485510 4241244.546181 9.325671 1742 131 141 126
641821.485421 4241244.545838 9.327990 133 131 141 126
641821.483412 4241244.537447 9.330226 -1035 131 141 126
641816.860092 4241225.151490 9.133743 -1475 131 141 126
641816.857929 4241225.142456 9.135950 -1536 136 149 136
641816.862056 4241225.159812 9.139270 -1437 136 149 136
641816.842359 4241225.079278 9.155633 -1428 136 149 136
641816.841911 4241225.075612 9.158623 -1339 136 149 136
641816.840743 4241225.070757 9.161600 -1453 136 149 136
641816.840419 4241225.069444 9.164491 -1371 136 149 136
641816.842398 4241225.077789 9.167599 -1538 136 149 136
641816.837624 4241225.057804 9.170307 -1287 136 149 136
641816.840141 4241225.068404 9.173195 -1435 136 149 136
641816.838129 4241225.060010 9.176018 -1499 133 146 137
641817.041328 4241225.912432 9.190544 -1444 133 146 137
641817.038319 4241225.899853 9.193298 -1369 133 146 137
641817.038457 4241225.900473 9.196180 -1441 133 146 137
641817.036445 4241225.892079 9.198976 -1338 133 146 137
641817.038041 4241225.898816 9.201916 -1425 133 146 137
641817.036493 4241225.892359 9.204134 -1551 133 146 137
641817.034389 4241225.883619 9.209923 -1492 126 138 130
641817.035217 4241225.887136 9.212952 -1404 126 138 130
641817.035814 4241225.889686 9.216091 -1457 126 138 130
641816.567624 4241223.925878 9.200065 -1455 126 138 130
641816.567914 4241223.927141 9.203143 -1377 126 138 130
641816.576033 4241223.961241 9.206647 -1285 112 122 114
641816.577244 4241223.966367 9.209759 -1229 112 122 114
641816.577151 4241223.966021 9.212821 -1315 112 122 114
641816.569846 4241223.935419 9.214873 -1102 112 122 114
641816.458693 4241223.469231 9.214305 -1141 112 122 114
641816.461673 4241223.481769 9.216642 -1056 112 122 114
641816.463650 4241223.490112 9.220291 -1087 112 122 114
641816.462790 4241223.486547 9.223219 -1247 112 122 114
641816.655573 4241224.295223 9.233308 -1511 112 122 114
641816.653101 4241224.284899 9.236026 -1516 112 122 114
641817.021209 4241225.827166 9.252449 -1474 112 122 114
641817.020117 4241225.822633 9.255884 -1258 112 122 114
641817.020333 4241225.823577 9.258651 -1240 112 122 114
641817.019934 4241225.821947 9.261396 -1236 112 121 114
641817.020763 4241225.825468 9.264186 -1236 96 106 94
641817.019443 4241225.819973 9.267016 -1233 96 106 94
641817.019198 4241225.818986 9.269886 -1191 96 106 94
641817.020717 4241225.825403 9.272820 -1262 96 106 94
641817.019167 4241225.818943 9.275763 -1402 96 106 94
641817.020379 4241225.824072 9.278685 -1620 96 106 94
641816.950659 4241225.531712 9.282071 -1501 99 106 93
641816.953253 4241225.542636 9.285173 -1512 99 106 93
641816.954313 4241225.547123 9.288099 -1473 99 106 93
641816.952151 4241225.538093 9.290191 -1435 99 106 93
641816.948603 4241225.523258 9.293675 -1322 99 106 93
641816.945441 4241225.510038 9.296453 -1253 99 106 93
641816.944965 4241225.508086 9.299326 -1120 99 106 93
641816.942418 4241225.497443 9.302008 -1081 99 106 93
641816.943197 4241225.498935 9.304791 -1107 95 101 85
641816.943567 4241225.500526 9.307454 -1095 95 101 85
641816.945855 4241225.510165 9.310303 -1197 95 101 85
641816.950290 4241225.528814 9.313823 -1401 95 101 85
641816.950352 4241225.529117 9.316595 -1347 95 101 85
641816.946884 4241225.514612 9.319126 -1479 95 101 85
641816.952086 4241225.536480 9.322671 -1478 95 101 85
641816.950921 4241225.531633 9.325400 -1250 95 101 85
641816.951980 4241225.536120 9.328325 -1239 95 101 85
641816.950738 4241225.530951 9.331052 -1197 95 101 85
641816.951107 4241225.532541 9.333953 -1182 95 101 85
641816.949020 4241225.523830 9.336773 -1229 95 101 85
641816.948775 4241225.522845 9.339654 -1198 96 101 86
641816.950218 4241225.528942 9.342591 -1261 96 101 86
641816.951584 4241225.534717 9.345644 -1235 95 100 79
641816.951339 4241225.533732 9.348645 -1369 95 100 79
641816.949562 4241225.526314 9.350757 -1257 95 100 79
641816.949930 4241225.527904 9.353778 -1109 95 100 79
641816.950837 4241225.531748 9.356696 -1171 95 100 79
641816.951973 4241225.536559 9.359621 -1251 98 102 78
641816.587532 4241224.007958 9.354516 -1351 98 102 78
641816.982000 4241225.662684 9.372353 -1504 98 102 78
641816.982370 4241225.664277 9.375009 -1441 98 102 78
641816.982278 4241225.663935 9.378250 -1512 98 102 78
641816.615842 4241224.126967 9.372911 -1241 98 102 79
641816.616749 4241224.130814 9.375632 -1083 98 101 78
641816.618805 4241224.139486 9.378998 -1090 98 101 78
641816.625085 4241224.165869 9.381881 -1175 98 101 78
641816.629983 4241224.186456 9.384842 -1223 98 101 78
641816.631350 4241224.192234 9.387697 -1228 98 101 78
641816.628494 4241224.180302 9.391034 -1212 98 101 78
641816.627482 4241224.176100 9.393818 -1226 98 101 78
641816.625780 4241224.169001 9.396582 -1243 98 101 78
641821.487856 4241244.556262 8.974623 -1477 153 156 111
641821.485454 4241244.546253 8.976877 -1265 153 156 111
641821.487580 4241244.555237 8.979067 -1313 153 156 111
641821.487326 4241244.554239 8.981463 -1307 153 156 111
641821.487994 4241244.557107 8.983647 -1415 153 156 111
641821.485517 4241244.546781 8.985625 -1295 154 157 112
641821.490020 4241244.565739 8.988151 -1442 154 157 112
641821.489767 4241244.564745 8.990365 -1436 154 157 112
641821.487136 4241244.553773 8.992424 -1271 154 157 112
641821.487036 4241244.553422 8.994649 -1265 154 157 112
641821.487397 4241244.555001 8.996995 -1273 154 157 112
641821.485840 4241244.548535 8.999125 -1360 154 157 112
641821.486737 4241244.552368 9.001414 -1299 154 157 112
641821.486638 4241244.552017 9.003639 -1236 154 157 112
641821.487689 4241244.556494 9.005937 -1221 154 157 112
641821.488050 4241244.558074 9.008283 -1201 154 157 112
641821.486953 4241244.553539 9.010443 -1239 154 157 112
641821.487351 4241244.556471 9.012716 -1149 154 157 112
641821.487712 4241244.558051 9.015061 -1201 154 157 112
641821.486921 4241244.554803 9.017333 -1220 158 161 114
641821.487975 4241244.559285 9.019267 -1148 158 161 114
641821.487185 4241244.556037 9.021539 -1143 154 157 112
641821.486930 4241244.555040 9.024026 -1213 155 157 112
641821.487523 4241244.557590 9.026022 -1220 155 157 112
641821.485274 4241244.548225 9.028384 -1171 155 157 112
641821.485559 4241244.549487 9.030452 -1204 155 157 112
641821.486611 4241244.553966 9.032658 -1271 155 157 112
641821.487587 4241244.558124 9.034768 -1274 155 157 112
641821.487639 4241244.558412 9.037456 -1229 155 157 112
641821.488077 4241244.560316 9.039714 -1261 155 157 112
641821.485369 4241244.549024 9.041777 -1245 155 157 112
641821.486882 4241244.555434 9.044011 -1260 155 157 112
641821.486553 4241244.554120 9.046131 -1214 155 157 112
641821.486607 4241244.554415 9.048365 -1179 155 156 108
641821.486892 4241244.555675 9.050614 -1242 155 156 108
641821.486179 4241244.552751 9.052801 -1145 155 156 108
641821.486080 4241244.552403 9.054935 -1157 156 157 108
641821.486249 4241244.554373 9.057101 -1113 156 157 108
641821.485576 4241244.550420 9.059184 -1187 156 157 108
641821.485052 4241244.549486 9.061854 -1218 156 157 108
641821.486258 4241244.554610 9.064067 -1196 156 157 108
641821.485775 4241244.552652 9.066269 -1199 156 157 108
641821.484986 4241244.549407 9.068453 -1221 156 157 108
641821.485501 4241244.551633 9.070715 -1233 156 157 108
641821.486706 4241244.556756 9.073018 -1151 156 157 108
641821.484535 4241244.547717 9.075210 -1145 156 157 108
641821.486124 4241244.554448 9.077627 -1129 155 156 108
641821.485950 4241244.553784 9.079393 -1125 155 156 108
641821.487079 4241244.558584 9.081782 -1203 160 160 111
641821.487516 4241244.560487 9.084129 -1199 153 155 110
641821.483964 4241244.545654 9.086332 -1320 153 155 110
641821.487451 4241244.560875 9.106250 -1546 153 155 110
641821.487302 4241244.559392 9.117744 -1698 158 159 113
641821.487281 4241244.559369 9.119882 -1461 158 159 113
641821.487950 4241244.562242 9.121969 -1481 158 159 113
641821.487929 4241244.562219 9.124107 -1459 158 159 113
641821.486916 4241244.557178 9.137511 -1321 157 158 113
641821.486589 4241244.555868 9.139541 -1352 157 158 113
641821.486490 4241244.555522 9.141766 -1131 157 158 113
641821.486697 4241244.556458 9.144463 -557 152 153 114
641821.487059 4241244.558044 9.146623 254 153 154 114
641821.487805 4241244.561239 9.148804 1090 153 154 114
641821.487247 4241244.558964 9.150822 1710 153 154 114
641821.488682 4241244.565051 9.153495 2048 153 154 114
641821.489352 4241244.567926 9.155580 2048 153 154 114
641821.488564 4241244.564686 9.157585 2048 153 154 114
641821.488541 4241244.564660 9.159996 2048 153 154 114
641821.487751 4241244.561415 9.162457 2048 153 154 114
641821.487464 4241244.559078 9.164294 1849 153 154 114
641821.487058 4241244.557443 9.166685 1460 153 154 114
641821.486347 4241244.554525 9.168695 961 153 154 114
641821.485557 4241244.551281 9.171066 1250 153 154 114
641821.486611 4241244.555766 9.173171 2048 153 154 114
641821.487741 4241244.560573 9.175280 2048 153 152 114
641821.488409 4241244.563442 9.177910 2048 153 152 115
641821.488158 4241244.562455 9.179945 2048 153 152 115
641821.488291 4241244.563078 9.182000 2048 153 152 115
641821.487807 4241244.561119 9.184660 2048 153 152 115
641821.489167 4241244.566890 9.186871 2048 153 152 115
641821.487919 4241244.561719 9.188945 2048 153 152 115
641821.489126 4241244.566847 9.191148 2048 153 152 115
641821.488568 4241244.564572 9.193258 2048 153 152 115
641821.488086 4241244.562619 9.195463 2048 153 152 115
641821.487989 4241244.562275 9.197598 2048 151 150 114
641821.488502 4241244.564501 9.200309 2048 151 150 114
641821.488712 4241244.565445 9.202459 2048 134 137 103
641821.488845 4241244.566068 9.204515 2048 134 137 103
641821.488364 4241244.564116 9.206629 2048 126 129 98
641821.488725 4241244.565700 9.209151 2048 125 128 97
641821.487784 4241244.561818 9.211151 2048 125 128 97
641821.488606 4241244.565333 9.213696 2048 125 128 97
641821.487972 4241244.562740 9.215622 2048 125 128 97
641821.488642 4241244.565616 9.217704 2048 125 128 97
641821.488083 4241244.563338 9.220270 2048 125 128 97
641821.487065 4241244.559135 9.222176 2048 125 128 97
641821.485968 4241244.554603 9.224716 2048 125 128 97
641821.484414 4241244.548147 9.226687 1152 125 128 97
641821.484240 4241244.547484 9.228727 154 125 128 97
641821.484064 4241244.546814 9.231404 -76 125 128 97
641821.484043 4241244.546793 9.233543 -126 125 128 97
641821.483869 4241244.546129 9.235674 -155 125 128 97
641821.484539 4241244.549006 9.237847 -176 117 121 93
641821.483981 4241244.546732 9.240051 -131 117 121 93
641821.483730 4241244.545745 9.242269 -146 117 121 93
641821.484017 4241244.547012 9.244423 -46 117 121 93
641821.484456 4241244.548924 9.246585 97 117 121 93
641821.484282 4241244.548259 9.248807 198 117 121 93
641821.484029 4241244.547268 9.251480 44 117 121 93
641821.483779 4241244.546284 9.253517 -63 117 121 93
641821.483605 4241244.545620 9.255649 -79 117 121 93
641821.483124 4241244.543670 9.257766 0 116 121 92
641821.484255 4241244.548479 9.259869 8 116 121 92
641821.484080 4241244.547811 9.262455 -12 116 121 92
641821.484060 4241244.547792 9.264503 -55 111 118 93
641821.483733 4241244.546487 9.266536 -76 111 118 93
641821.484094 4241244.548072 9.269148 603 112 120 98
641821.483998 4241244.547732 9.271192 1871 112 120 98
641821.486433 4241244.558013 9.273355 2048 112 120 98
641821.488061 4241244.563718 9.276105 2048 112 120 98
641821.487811 4241244.562733 9.278232 2048 112 120 98
641821.487714 4241244.562391 9.280458 2048 112 120 98
641821.488077 4241244.563982 9.282614 2048 112 120 98
641821.487519 4241244.561708 9.284909 2048 112 120 98
641821.488957 4241244.567805 9.287115 2048 112 120 98
641821.488169 4241244.564566 9.289400 2048 112 120 98
641821.487074 4241244.560041 9.291580 2048 112 120 98
641821.487206 4241244.560664 9.293907 2048 112 120 98
641821.488490 4241244.566115 9.296287 2048 112 120 98
641821.487168 4241244.560630 9.297911 2048 112 120 98
641821.487454 4241244.561897 9.300246 2048 111 120 98
641821.487356 4241244.561556 9.302472 2048 123 133 117
641821.487183 4241244.560894 9.304694 2048 123 133 117
641821.488390 4241244.566025 9.306887 2048 123 133 117
641821.487449 4241244.562144 9.309075 2048 123 133 117
641821.487197 4241244.561156 9.311749 2048 123 133 117
641821.486486 4241244.558241 9.313857 2048 123 133 117
641821.486390 4241244.557901 9.315992 2048 123 133 117
641821.486677 4241244.559171 9.318144 2048 123 135 118
641821.486350 4241244.557866 9.320269 2048 123 135 118
641821.485561 4241244.554626 9.322829 2048 131 141 126
641821.484006 4241244.548170 9.324992 1307 131 141 126
641821.482681 4241244.542680 9.327165 -257 131 141 126
641821.483736 4241244.547169 9.329351 -1226 131 142 126
641816.858060 4241225.155647 9.132515 -1468 131 141 126
641816.857080 4241225.150068 9.135480 -1484 136 149 136
641816.836433 4241225.063994 9.152032 -1510 136 149 136
641816.838018 4241225.070729 9.155123 -1337 136 149 136
641816.836536 4241225.064597 9.157257 -1320 136 149 136
641816.836433 4241225.064252 9.160277 -1381 136 149 136
641816.838172 4241225.071632 9.163255 -1419 136 149 136
641816.837302 4241225.068069 9.166125 -1430 136 149 136
641816.834590 4241225.056782 9.168920 -1319 136 149 136
641817.042302 4241225.928271 9.189448 -1440 132 145 137
641817.035370 4241225.899283 9.192044 -1350 133 146 137
641817.034270 4241225.894755 9.194876 -1276 133 146 137
641817.036316 4241225.903424 9.197836 -1417 133 146 137
641817.035523 4241225.900183 9.200799 -1312 133 146 137
641817.033809 4241225.893081 9.203608 -1286 133 146 137
641817.031867 4241225.885019 9.205704 -1322 133 146 137
641817.032071 4241225.885961 9.208825 -1390 133 146 137
641817.033274 4241225.891090 9.211750 -1329 126 138 130
641817.031942 4241225.885595 9.214927 -1446 126 138 130
641817.032377 4241225.887504 9.217939 -1441 126 138 130
641817.033121 4241225.890707 9.220259 -1457 124 137 128
641816.570026 4241223.948608 9.205264 -1326 112 122 114
641816.574681 4241223.968219 9.208629 -1270 112 122 114
641816.575347 4241223.971098 9.211119 -1300 112 122 114
641816.567416 4241223.937925 9.213878 -1093 112 122 114
641816.456956 4241223.474753 9.212716 -1211 112 122 114
641816.459155 4241223.484065 9.215882 -1060 112 122 114
641816.459513 4241223.485654 9.218857 -1120 112 122 114
641816.461635 4241223.494644 9.222019 -1238 112 122 114
641817.018916 4241225.830536 9.251485 -1450 112 122 114
641817.016128 4241225.818929 9.254261 -1267 112 122 114
641817.017331 4241225.824059 9.257185 -1199 112 122 114
641817.019071 4241225.831443 9.260129 -1221 111 121 113
641817.018816 4241225.830459 9.262882 -1119 96 106 94
641817.018100 4241225.827542 9.265853 -1192 96 106 94
641817.016846 4241225.822372 9.268804 -1154 96 106 94
641817.018202 4241225.828145 9.271851 -1279 96 106 94
641817.016182 4241225.819757 9.274774 -1431 96 106 94
641817.013240 4241225.807507 9.277666 -1519 96 106 94
641816.949315 4241225.539667 9.283794 -1334 96 106 94
641816.949692 4241225.539872 9.289221 -1544 99 106 93
641816.944909 4241225.519897 9.292060 -1275 99 106 93
641816.943502 4241225.514084 9.295136 -1181 99 106 93
641816.941405 4241225.505375 9.297954 -1190 99 106 93
641816.941150 4241225.504392 9.300836 -1192 95 101 85
641816.941201 4241225.504696 9.303728 -1125 95 101 85
641816.942942 4241225.512080 9.306679 -1249 95 101 85
641816.945142 4241225.521396 9.309645 -1290 95 101 85
641816.946960 4241225.529103 9.312597 -1331 95 101 85
641816.950005 4241225.541960 9.315591 -1433 95 101 85
641816.946911 4241225.529069 9.318258 -1371 95 101 85
641816.948421 4241225.535489 9.321198 -1417 95 101 85
641816.949086 4241225.538367 9.324228 -1275 95 101 85
641816.947297 4241225.530948 9.327058 -1247 95 101 85
641816.949113 4241225.538653 9.330244 -1272 95 101 85
641816.948247 4241225.535101 9.332398 -1266 95 101 85
641816.945459 4241225.523496 9.335313 -1217 95 101 85
641816.945664 4241225.524443 9.338446 -1150 96 101 86
641816.946099 4241225.526356 9.341586 -1188 96 101 86
641816.946383 4241225.527631 9.343896 -1279 95 100 79
641816.946358 4241225.527613 9.347020 -1269 95 100 79
641816.945028 4241225.522122 9.350221 -1175 95 100 79
641816.945389 4241225.523719 9.352533 -1120 95 100 79
641816.945286 4241225.523379 9.355774 -1131 95 100 79
641816.946719 4241225.529476 9.358945 -1283 95 100 79
641816.583897 4241224.008016 9.352794 -1457 98 102 78
641816.979240 4241225.666204 9.371286 -1473 98 102 78
641816.979906 4241225.669085 9.374309 -1554 98 102 78
641816.977886 4241225.660701 9.377132 -1496 98 102 79
641816.977478 4241225.659076 9.380004 -1496 98 102 79
641816.615673 4241224.141812 9.371785 -1253 98 102 79
641816.617874 4241224.151130 9.374790 -1076 98 101 78
641816.621841 4241224.167851 9.377848 -1035 98 101 78
641816.624886 4241224.180710 9.380997 -1075 98 101 78
641816.625398 4241224.182948 9.383949 -1146 98 101 78
641816.626297 4241224.186798 9.386314 -1127 98 101 78
641816.628421 4241224.195795 9.389433 -1211 98 101 78
641816.626017 4241224.185801 9.392417 -1214 98 101 78
641816.622077 4241224.169370 9.395477 -1282 98 101 78
641816.613840 4241224.134915 9.398411 -1292 98 101 78
641816.613664 4241224.134260 9.400745 -1508 98 101 78
641816.977515 4241225.667738 8.674715 -1505 153 156 111
641816.980749 4241225.679521 8.677677 -1428 153 156 111
641816.982807 4241225.688178 8.680697 -1420 153 156 111
641818.535645 4241232.198388 8.788733 -1462 153 156 111
641818.535402 4241232.197388 8.791066 -1297 154 157 112
641818.534696 4241232.194452 8.793575 -1104 154 157 112
641818.535755 4241232.198920 8.796613 -1045 154 157 112
641818.536817 4241232.203396 8.799134 -1174 154 157 112
641818.535113 4241232.196272 8.801579 -1248 154 157 112
641818.530796 4241232.178192 8.803957 -1168 154 157 112
641818.527017 4241232.162370 8.806268 -1136 154 157 112
641818.526770 4241232.161360 8.809325 -1101 154 157 112
641818.527293 4241232.163578 8.812019 -1079 154 157 112
641818.527201 4241232.163218 8.814673 -1200 154 157 112
641818.526726 4241232.161249 8.817199 -1256 154 157 112
641818.520642 4241232.135761 8.819469 -1362 154 157 112
641818.511716 4241232.098352 8.821559 -1614 154 157 112
641818.507860 4241232.082206 8.823975 -1488 154 157 112
641818.507077 4241232.078948 8.826588 -1372 158 161 115
641818.507907 4241232.082452 8.829510 -1317 158 161 115
641818.507818 4241232.082099 8.831754 -1240 158 161 114
641818.507956 4241232.082703 8.834632 -1243 158 161 114
641818.512321 4241232.101033 8.837363 -1569 158 161 114
641818.503596 4241232.064517 8.844906 -1347 155 157 112
641818.508192 4241232.083813 8.847753 -1087 155 157 112
641818.509176 4241232.087966 8.850374 -1156 155 157 112
641818.531211 4241232.180394 8.854407 -927 155 157 112
641818.545563 4241232.240603 8.858060 -1067 155 157 112
641818.547315 4241232.247977 8.860825 -1073 155 157 112
641818.545380 4241232.239887 8.863363 -1067 155 157 112
641818.542292 4241232.226963 8.865933 -1120 155 156 108
641818.540511 4241232.219517 8.868481 -1194 155 156 108
641818.509549 4241232.089942 8.895657 -1555 156 157 108
641818.509688 4241232.090550 8.898431 -1419 156 157 108
641818.508752 4241232.086648 8.901141 -1324 161 161 112
641821.485444 4241244.564446 9.136616 -1477 158 159 113
641821.483964 4241244.558275 9.140647 -1320 158 159 113
641821.483952 4241244.558246 9.143049 -779 162 162 115
641821.484631 4241244.561117 9.145490 -68 162 161 116
641821.484469 4241244.560452 9.147191 646 162 161 116
641821.484303 4241244.559779 9.149585 1423 153 154 114
641821.485137 4241244.563297 9.151861 1884 153 154 114
641821.485356 4241244.564236 9.154189 2048 153 154 114
641821.485191 4241244.563565 9.156410 2048 153 154 114
641821.485648 4241244.564107 9.158734 2048 153 154 114
641821.485253 4241244.562470 9.160943 1932 153 154 114
641821.484628 4241244.559867 9.163052 1771 153 154 114
641821.484540 4241244.559519 9.165277 1668 153 154 114
641821.485451 4241244.563359 9.167556 1387 153 154 114
641821.484211 4241244.558179 9.169719 872 153 154 114
641821.483662 4241244.555898 9.171920 1255 153 154 114
641821.483497 4241244.555226 9.174227 2048 153 152 114
641821.484562 4241244.559711 9.176514 2048 153 152 115
641821.484550 4241244.559685 9.178830 2048 153 152 115
641821.485153 4241244.562236 9.181178 2048 153 152 115
641821.485682 4241244.564470 9.183003 2048 153 152 115
641821.485978 4241244.565733 9.185335 2048 153 152 115
641821.486043 4241244.566028 9.187741 2048 153 152 115
641821.485035 4241244.561818 9.189572 2048 153 152 115
641821.486330 4241244.567269 9.191956 2048 153 152 115
641821.485780 4241244.564986 9.194416 2048 153 152 115
641821.486230 4241244.566893 9.196755 2048 153 152 115
641821.485376 4241244.563329 9.198508 2048 153 152 115
641821.485749 4241244.564914 9.200844 2048 153 152 115
641821.486045 4241244.566177 9.203175 2048 151 150 114
641821.485881 4241244.565506 9.205483 2048 142 141 105
641821.486408 4241244.567737 9.207739 2048 125 128 97
641821.485552 4241244.564169 9.209925 2048 125 128 97
641821.486387 4241244.567689 9.212111 2048 125 128 97
641821.485838 4241244.565409 9.214313 2048 125 128 97
641821.485444 4241244.563775 9.216436 2048 125 128 97
641821.484740 4241244.560846 9.219062 2048 125 128 97
641821.485421 4241244.563722 9.221326 2048 125 128 97
641821.484719 4241244.560798 9.223521 2048 125 128 97
641821.483172 4241244.554330 9.225673 2048 125 128 97
641821.481781 4241244.548512 9.227315 1766 125 128 97
641821.482308 4241244.550744 9.229571 613 125 128 97
641821.481682 4241244.548141 9.231857 14 125 128 97
641821.481825 4241244.548761 9.234181 -85 125 128 97
641821.481583 4241244.547769 9.236572 -111 117 121 93
641821.481111 4241244.545810 9.238952 -84 117 121 93
641821.481026 4241244.545469 9.240745 -91 117 121 93
641821.481322 4241244.546733 9.243077 -79 117 121 93
641821.480850 4241244.544775 9.245457 -77 117 121 93
641821.481530 4241244.547650 9.247893 -58 117 121 93
641821.482060 4241244.549887 9.249630 -6 117 121 93
641821.481511 4241244.547608 9.251920 8 117 121 93
641821.481808 4241244.548872 9.254251 -33 117 121 93
641821.481183 4241244.546272 9.256451 -46 117 121 93
641821.480865 4241244.544960 9.258666 -19 117 121 93
641821.481546 4241244.547837 9.260929 -5 117 121 93
641821.481536 4241244.547814 9.263159 -35 116 121 92
641821.480834 4241244.544891 9.265356 -79 116 121 92
641821.481669 4241244.548413 9.267625 -26 112 120 98
641821.482120 4241244.550324 9.269790 718 112 120 98
641821.481956 4241244.549657 9.272013 1999 112 120 98
641821.484942 4241244.562199 9.274469 2048 112 120 98
641821.485854 4241244.566043 9.276741 2048 112 120 98
641821.485382 4241244.564087 9.279035 2048 112 120 98
641821.486140 4241244.567286 9.281386 2048 112 120 98
641821.486129 4241244.567262 9.283788 2048 112 120 98
641821.485814 4241244.565956 9.285484 2048 112 120 98
641821.485265 4241244.563677 9.287862 2048 112 120 98
641821.484947 4241244.562365 9.290250 2048 112 120 98
641821.485476 4241244.564601 9.292157 2048 112 120 98
641821.485389 4241244.564256 9.294556 2048 112 120 98
641821.485839 4241244.566165 9.296979 2048 112 120 98
641821.484983 4241244.562598 9.299343 2048 111 120 98
641821.485052 4241244.562904 9.301056 2048 123 133 117
641821.484811 4241244.561915 9.303362 2048 123 133 117
641821.484724 4241244.561570 9.305674 2048 123 133 117
641821.485328 4241244.564125 9.308017 2048 123 133 117
641821.485242 4241244.563782 9.310243 2048 123 133 117
641821.485309 4241244.564084 9.312389 2048 123 133 117
641821.485145 4241244.563417 9.314698 2048 123 133 117
641821.484367 4241244.560175 9.316806 2048 123 133 117
641821.484972 4241244.562733 9.318976 2048 123 133 117
641821.483347 4241244.555941 9.321654 2048 123 135 118
641821.483261 4241244.555599 9.323793 2048 123 135 118
641821.480946 4241244.545912 9.325923 1685 123 135 118
641821.481013 4241244.546213 9.328156 280 131 142 126
641821.480314 4241244.543298 9.329837 -585 131 142 126
641821.478230 4241244.534577 9.332064 -1273 136 149 136
641816.669820 4241224.378095 9.128268 -1258 136 149 136
641816.670805 4241224.382254 9.131467 -1346 136 149 136
641816.834293 4241225.068011 9.159011 -1292 136 149 136
641816.834895 4241225.070563 9.161942 -1285 136 149 136
641816.835190 4241225.071826 9.164859 -1488 136 149 136
641816.831029 4241225.054402 9.167593 -1468 136 149 136
641817.036216 4241225.914901 9.184348 -1427 132 145 137
641817.036358 4241225.915521 9.187118 -1302 132 145 137
641817.033579 4241225.903897 9.189881 -1425 132 145 137
641817.031129 4241225.891850 9.193201 -1310 132 145 137
641817.031731 4241225.894402 9.196102 -1411 133 146 137
641817.030106 4241225.887612 9.198913 -1259 133 146 137
641817.033705 4241225.902730 9.201934 -1286 133 146 137
641817.031541 4241225.893684 9.204724 -1509 133 146 137
641817.032991 4241225.899786 9.207101 -1477 133 146 137
641817.031442 4241225.893317 9.210028 -1386 133 146 137
641817.030201 4241225.888138 9.212855 -1484 133 146 137
641817.029035 4241225.883279 9.215910 -1487 126 138 130
641816.560696 4241223.921200 9.200621 -1205 124 137 128
641817.028783 4241225.882268 9.221208 -1507 112 122 114
641816.565975 4241223.943386 9.206259 -1367 112 122 114
641816.569804 4241223.959470 9.209579 -1329 112 122 114
641816.570790 4241223.963633 9.212675 -1672 112 122 114
641816.448752 4241223.451942 9.214016 -1305 112 122 114
641816.452504 4241223.467704 9.217235 -1233 112 122 114
641816.452492 4241223.467680 9.220196 -1253 112 122 114
641816.467694 4241223.531452 9.223615 -1335 112 122 114
641816.481589 4241223.589746 9.226982 -1427 112 122 114
641817.014888 4241225.824315 9.255327 -1432 112 122 114
641817.014108 4241225.821071 9.258177 -1322 111 121 113
641817.014173 4241225.821371 9.260947 -1269 111 121 113
641817.015545 4241225.827148 9.263877 -1203 96 106 94
641817.015072 4241225.825193 9.266738 -1207 96 106 94
641817.015135 4241225.825487 9.270290 -1266 96 106 94
641817.013819 4241225.819993 9.272451 -1285 96 106 94
641817.016343 4241225.830602 9.275533 -1453 96 106 94
641816.948002 4241225.544103 9.282063 -1365 96 106 94
641816.948144 4241225.544725 9.284957 -1580 96 106 94
641816.943522 4241225.525370 9.287906 -1282 96 106 94
641816.943664 4241225.525993 9.290801 -1257 99 106 93
641816.939813 4241225.509866 9.292994 -1187 99 106 93
641816.938573 4241225.504689 9.295841 -1183 99 106 93
641816.936102 4241225.494358 9.298645 -1074 99 106 93
641816.936937 4241225.497881 9.301452 -1103 95 101 85
641816.937153 4241225.498822 9.305022 -1224 95 101 85
641816.941830 4241225.518456 9.307849 -1246 95 101 85
641816.943663 4241225.526169 9.310690 -1211 95 101 85
641816.946802 4241225.539359 9.313574 -1299 95 101 85
641816.944177 4241225.528380 9.316822 -1292 95 101 85
641816.941400 4241225.516761 9.319505 -1295 95 101 85
641816.943003 4241225.523508 9.322337 -1251 95 101 85
641816.940918 4241225.514789 9.324932 -1305 95 101 85
641816.940676 4241225.513802 9.327814 -1272 95 101 85
641816.943893 4241225.527315 9.330699 -1274 95 101 85
641816.943651 4241225.526328 9.333580 -1258 95 101 85
641816.945791 4241225.535330 9.336540 -1280 96 101 86
641816.944321 4241225.529188 9.339381 -1173 96 101 86
641816.945078 4241225.532390 9.342295 -1225 95 100 79
641816.944144 4241225.528503 9.345265 -1220 95 100 79
641816.942827 4241225.523006 9.348112 -1277 95 100 79
641816.942509 4241225.521697 9.350991 -1204 95 100 79
641816.940730 4241225.514267 9.353936 -1121 95 100 79
641816.942564 4241225.521981 9.356772 -1112 95 100 79
641816.940862 4241225.514872 9.359719 -1238 95 100 79
641816.717185 4241224.576938 9.355415 -1426 95 100 79
641816.717867 4241224.579820 9.358132 -1449 95 100 79
641816.974713 4241225.656902 9.369674 -1447 98 102 78
641816.976033 4241225.660654 9.372364 -1316 98 102 78
641816.975946 4241225.660314 9.375022 -1315 98 102 78
641816.978623 4241225.671570 9.378325 -1452 98 102 79
641816.615379 4241224.150214 9.372978 -1254 98 101 78
641816.616675 4241224.155674 9.375727 -1130 98 101 78
641816.616585 4241224.155330 9.379116 -1091 98 101 78
641816.624566 4241224.188821 9.382066 -1179 98 101 78
641816.623711 4241224.185260 9.384748 -1096 98 101 78
641816.623471 4241224.184276 9.387449 -1181 98 101 78
641816.624180 4241224.185444 9.390964 -1122 98 101 78
